0.1259511560201645 -0.3099023997783661 0.3349972665309906
0.027050431817770004 0.06918298453092575 -0.36104023456573486
-0.04626668989658356 -0.06962975859642029 -0.4549035131931305
0.39131632447242737 0.39772945642471313 -0.3113170862197876
-0.16304394602775574 -0.04103889316320419 -0.31483200192451477
-0.041525572538375854 0.04171955585479736 0.321419358253479
-0.32852017879486084 0.351993590593338 0.33009403944015503
-0.18812575936317444 0.024354707449674606 -0.11077721416950226
0.1792793571949005 -0.1417122334241867 0.3135906457901001
-0.17302227020263672 0.15818814933300018 -0.16700169444084167
0.2739145755767822 -0.26119691133499146 -0.04833250865340233
0.18000191450119019 -0.16932173073291779 0.4855797588825226
0.1869535595178604 -0.20856569707393646 -0.027563514187932014
-0.17643244564533234 0.28012949228286743 -0.21939882636070251
-0.3861713409423828 0.11810007691383362 0.8260949850082397
0.0075111305341124535 0.17895855009555817 0.17480410635471344
-0.012297432869672775 0.19141221046447754 -0.1830030232667923
-0.08668948709964752 -0.046424925327301025 0.12477655708789825
-0.16112565994262695 0.2119767963886261 -0.006881595589220524
-0.10523301362991333 0.07067672908306122 0.3163878619670868
-0.3791341185569763 0.5331117510795593 -0.487765371799469
-0.05015665292739868 -0.0809774398803711 0.2968612313270569
-0.26992183923721313 0.1986672729253769 0.2202824354171753
-0.20938265323638916 0.1895095705986023 0.02571887895464897
0.045310042798519135 -0.02136746421456337 0.4353606104850769
-0.10155455768108368 -0.16957290470600128 0.4434216022491455
0.09218432009220123 0.19484972953796387 0.07541146874427795
0.004752043634653091 -0.27882498502731323 -0.12190599739551544
0.016161825507879257 -0.044730886816978455 -0.36286863684654236
0.32612183690071106 -0.2579296827316284 0.1871756911277771
0.23348067700862885 -0.2013125717639923 -0.007695231586694717
-0.12987226247787476 -0.19286052882671356 -0.014058787375688553
0.11067841947078705 -0.017249813303351402 -0.33150824904441833
-0.0014635417610406876 -0.1207399070262909 -0.3011348247528076
0.4705832898616791 -0.11710239201784134 -0.08946239948272705
0.284277081489563 0.0311675313860178 0.08964911103248596
0.005345448851585388 -0.48438912630081177 0.5891280174255371
-0.08078276365995407 -0.4772113263607025 0.09394654631614685
-0.005350073799490929 0.12339217960834503 0.3387998342514038
-0.35568124055862427 0.43998008966445923 -0.07966639846563339
-0.14413221180438995 0.25816628336906433 -0.024798275902867317
0.16690227389335632 -0.21214275062084198 -0.19303950667381287
-0.4532281160354614 -0.2712993919849396 0.16035303473472595
-0.1422780454158783 0.24930599331855774 0.35014817118644714
0.09451965987682343 -0.1751381903886795 -0.13434521853923798
-0.21043655276298523 0.6972943544387817 0.2598409056663513
0.18192154169082642 -0.5772809982299805 0.12762786448001862
-0.21370063722133636 0.33234697580337524 0.10729309171438217
0.1330137699842453 -0.28139257431030273 -0.16203972697257996
0.16414915025234222 -0.07722033560276031 0.16301460564136505
-0.03970853611826897 0.06341372430324554 -0.6131523847579956
0.17971372604370117 -0.17014510929584503 -0.24501490592956543
0.11650070548057556 0.11714372038841248 -0.16930589079856873
0.15358397364616394 0.0033666950184851885 0.14747321605682373
-0.12671619653701782 0.2260686606168747 0.18422460556030273
-0.15966632962226868 -0.047451555728912354 0.04852764308452606
-0.074055977165699 0.31626808643341064 0.24757914245128632
-0.41253089904785156 0.06946341693401337 -0.6672132611274719
-0.06855753064155579 -0.04313679784536362 0.35594111680984497
0.05514637008309364 -0.12866371870040894 0.40273627638816833
-0.0763113871216774 -0.09665319323539734 -0.0393366776406765
0.24010586738586426 -0.039376307278871536 -0.27893388271331787
0.09835011512041092 0.07517175376415253 0.020862191915512085
0.11888711899518967 -0.2781699597835541 0.19822260737419128
-0.08387748897075653 0.309177428483963 0.018533583730459213
-0.09853401780128479 0.054779984056949615 -0.40539658069610596
0.45081135630607605 -0.19396618008613586 -0.673159122467041
-0.02130148559808731 0.152181476354599 -0.4594945013523102
0.11677338182926178 -0.3045527935028076 -0.02687516063451767
-0.28773534297943115 0.10992301255464554 0.02647539973258972
-0.20468054711818695 0.22225145995616913 0.11887604743242264
-0.29357296228408813 0.19821691513061523 -0.10797467082738876
-0.0571247935295105 0.06006595492362976 -0.2655881345272064
-0.06163899973034859 -0.23475122451782227 0.23260143399238586
0.15570269525051117 0.0010135816410183907 -0.5160953402519226
0.09575378149747849 -0.29608720541000366 -0.3159978985786438
0.027255361899733543 0.3345258831977844 -0.16561327874660492
0.15155331790447235 0.08898100256919861 0.3571999669075012
-0.17929083108901978 0.1742173731327057 -0.38242441415786743
-0.0985826775431633 0.039153676480054855 0.4805980324745178
-0.35574668645858765 0.07149863243103027 0.30560988187789917
-0.023540664464235306 -0.2638448476791382 0.049259454011917114
-0.19791512191295624 0.17822210490703583 0.1522204577922821
0.025022944435477257 -0.18513785302639008 0.29231807589530945
0.3251248002052307 -0.343411922454834 -0.2957729697227478
-0.17066282033920288 -0.06936297565698624 0.204193115234375
-0.05374712124466896 0.20383262634277344 -0.07090115547180176
-0.09653568267822266 -0.03046492673456669 0.31761783361434937
-0.6272091865539551 0.42731791734695435 0.025917276740074158
0.1021311953663826 -0.20812173187732697 -0.669853925704956
0.16903254389762878 0.424274742603302 0.18599361181259155
-0.10355199873447418 0.31007543206214905 -0.38163405656814575
-0.07521972805261612 0.1474130004644394 -0.25952252745628357
-0.07181787490844727 0.6065326929092407 -0.3120245039463043
-0.10397065430879593 0.32674485445022583 -0.1623116135597229
0.04084258899092674 -0.06450240314006805 0.3485523760318756
0.28218919038772583 -0.24341316521167755 -0.18447351455688477
-0.15786787867546082 -0.2732268273830414 -0.3422512412071228
-0.27712398767471313 0.25859978795051575 -0.28747686743736267
-0.2757709324359894 0.2830272316932678 -0.004118809476494789
-0.09763774275779724 0.20472419261932373 -0.34511786699295044
0.08075392991304398 -0.3465815782546997 0.21741823852062225
0.06147351861000061 0.23375913500785828 -0.41223540902137756
0.13885432481765747 -0.27671942114830017 0.0632215142250061
0.09310207515954971 -0.06892047077417374 -0.226530522108078
0.1300472915172577 -0.6992102861404419 -0.2802724242210388
-0.06437629461288452 0.1306603103876114 0.18467895686626434
0.3530932664871216 -0.5026918649673462 0.5416924953460693
0.03951112926006317 -0.23203706741333008 0.15620900690555573
0.169888436794281 -0.1035728007555008 -0.12176427245140076
0.15735098719596863 -0.2269192487001419 -0.03732141852378845
0.21219080686569214 -0.23791684210300446 0.15637527406215668
0.24480755627155304 -0.3633255958557129 0.18081161379814148
0.25015419721603394 -0.08733958750963211 0.028932349756360054
0.1171238124370575 0.03574926778674126 -0.17970065772533417
0.004439124837517738 0.27557504177093506 0.6023188829421997
0.1303757131099701 -0.12022356688976288 -0.35069701075553894
0.471282958984375 -0.0778622254729271 0.6019922494888306
0.032164886593818665 -0.1216205433011055 0.7407349348068237
-0.21889181435108185 0.14226828515529633 0.12070278823375702
0.10164602100849152 -0.15736670792102814 0.3399699330329895
-0.24172614514827728 0.27451977133750916 -0.155727356672287
-0.39086031913757324 0.03801442310214043 -0.1990869641304016
-0.19765664637088776 0.40558990836143494 -0.05026424676179886
0.21498550474643707 -0.40483829379081726 -0.06795216351747513
-0.11208078265190125 0.05845633149147034 0.22274217009544373
0.5976895093917847 -0.5603376626968384 0.03586620092391968
-0.04947452247142792 0.3810883164405823 -0.8127890825271606
